# .PCD v0.7 - Point Cloud Data file format
VERSION 0.7
FIELDS x y z
SIZE 4 4 4
TYPE F F F
COUNT 1 1 1
WIDTH 1505
HEIGHT 1
VIEWPOINT 0 0 0 1 0 0 0
POINTS 1505
DATA ascii
278.524109 -10.106547 38.143211
278.533905 -10.114162 38.090355
278.523743 -9.102359 38.315762
278.594757 -10.408281 38.518497
287.527832 -10.502666 49.753052
278.663391 -10.406447 38.273243
278.603729 -9.109545 38.046261
278.403015 -9.692325 39.691868
284.414948 -10.011839 43.065678
284.272552 -9.931609 42.899845
278.820526 -10.135671 43.302509
284.090271 -10.016839 43.023830
284.419708 -10.042561 42.985435
278.813965 -10.436269 43.322777
278.932526 -8.982405 52.657734
279.068329 -9.300569 51.111305
278.505127 -9.416518 50.263618
285.417389 -9.717024 72.460075
280.210541 -11.748717 69.515762
280.244904 -11.734664 68.755104
284.711731 -9.933624 67.915710
285.321594 -9.761145 72.088287
285.328918 -9.730172 72.126717
290.615936 -12.330461 114.290138
277.107513 -9.131905 57.545238
286.243896 -9.643786 57.898075
285.689087 -9.810012 56.828083
285.233093 -10.364689 57.483467
285.459778 -10.180087 57.510612
282.765686 -9.188666 58.198715
282.559174 -9.199771 58.089863
285.285706 -9.837372 57.559017
284.332825 -9.326079 57.758205
284.394470 -9.292586 58.078716
283.292419 -9.245272 57.931396
287.118805 -9.585886 57.082821
284.820831 -9.346474 57.762825
284.834198 -9.343280 57.840073
285.131622 -9.972042 57.629585
285.999451 -10.106107 57.704659
284.936981 -10.101583 57.816708
280.943451 -8.885282 59.875786
285.753113 -10.319617 57.409904
284.798981 -10.085911 58.011238
285.897156 -9.371470 57.507462
285.529694 -10.637516 58.192226
286.169800 -10.250184 58.124073
285.645721 -10.659588 58.365841
278.685242 -9.307220 58.769905
279.117157 -10.827164 58.914268
278.041016 -9.675696 58.844498
280.959564 -9.004726 59.352943
279.751099 -9.343714 58.836010
279.778198 -10.154244 58.689014
279.321655 -9.065131 60.667278
279.836884 -9.643764 58.884239
284.084991 -9.261180 59.704987
282.018005 -9.199259 59.391842
279.889954 -9.231386 59.619316
282.964996 -9.099934 60.904243
288.783722 -9.931705 59.156193
279.780396 -9.701567 59.801014
279.769501 -10.225417 59.647942
289.275146 -9.789288 60.246017
282.955597 -9.250526 60.283680
282.957214 -9.220526 60.396488
279.826691 -10.234880 59.524544
284.919861 -9.569739 61.583427
284.983612 -9.532786 61.781849
280.657715 -9.249364 61.455791
279.967163 -9.232674 61.912788
278.998505 -10.066808 65.329681
279.700104 -10.209529 62.103500
280.734406 -9.957772 57.501835
284.355408 -9.434681 61.914730
281.458923 -9.160756 62.308334
280.009674 -9.403316 62.723251
279.653503 -9.638429 63.835926
280.212128 -9.296231 63.347015
280.190308 -9.292420 63.467625
279.572266 -9.592860 63.911720
280.412018 -9.273178 63.896179
279.732117 -9.713320 63.446915
285.465668 -10.513003 64.834572
280.797882 -9.292853 63.882401
285.208649 -10.209491 64.342094
279.805786 -10.243500 63.973198
281.032837 -9.297492 64.123817
284.699249 -10.283031 62.344666
293.280243 -12.513860 65.087456
286.068451 -9.961804 70.117134
281.697205 -9.801099 59.430981
280.268402 -9.901489 63.500439
284.557007 -9.429649 66.773964
284.574615 -9.400917 66.721031
285.256439 -9.608753 66.845612
285.311890 -9.551689 67.448051
293.246735 -12.526480 68.348114
280.375641 -9.370289 68.084717
285.829773 -10.465696 68.288795
285.571594 -9.446797 69.143303
282.957245 -9.413933 69.120499
280.429993 -9.914859 68.598579
281.913544 -9.258326 69.754295
278.375366 -10.620646 75.456322
280.421661 -9.560582 75.761818
285.447327 -9.666204 72.512932
280.380676 -10.471864 76.144737
278.322632 -11.270273 75.663452
278.195068 -11.328180 76.349022
278.269989 -11.239096 75.939461
282.876099 -9.484685 81.137863
287.306732 -10.428307 81.608566
296.173309 -13.485703 83.780533
280.775055 -9.608394 77.818634
280.844147 -9.769384 77.795792
284.593781 -9.568970 77.994827
282.698212 -9.404555 78.642555
287.245209 -9.584982 79.130363
280.695740 -10.527700 79.006721
280.761261 -10.540694 78.820572
280.838318 -9.752800 79.824814
280.806580 -9.763518 80.457611
282.038635 -9.489931 80.160995
289.876892 -10.716825 79.925438
289.305267 -10.356966 80.811676
289.309387 -10.324067 80.832710
289.199951 -10.347833 80.647942
282.880005 -9.475583 80.911499
290.336975 -11.067593 82.292435
286.670288 -10.178798 82.043846
287.018646 -10.270811 81.699516
287.043396 -10.724060 81.450653
287.516327 -10.472074 82.044014
281.036285 -9.839455 82.296974
287.372681 -10.738263 81.980713
287.512390 -10.475773 82.029663
285.647278 -9.677194 81.969833
281.064301 -9.791662 82.358841
288.777985 -9.891982 82.270683
286.327850 -11.004855 82.366608
281.102173 -9.900577 82.092339
281.128021 -9.845711 81.956444
281.155243 -9.830865 81.817116
289.189117 -10.380983 80.723068
281.169739 -9.940657 81.918900
288.698120 -9.913294 81.979225
281.026276 -10.071096 83.664581
281.061340 -10.085298 83.475266
286.648743 -11.062082 86.623253
289.334747 -10.208299 84.703484
286.144043 -9.883988 85.750671
282.616638 -9.501722 85.211769
289.905762 -10.164206 83.976746
295.493652 -12.527606 85.659309
286.251953 -9.832070 86.598068
283.261597 -9.664139 87.013641
285.501373 -11.135762 80.458046
285.411224 -11.038259 79.888557
295.739716 -12.177188 88.513893
292.134460 -12.044396 88.814034
286.690674 -10.092349 90.854904
281.480011 -10.053569 89.420914
281.316589 -9.829052 91.676254
281.141327 -10.549451 92.237022
279.019897 -10.747816 93.512192
286.686096 -9.997062 91.536400
286.899750 -10.822961 94.528427
287.265411 -10.907684 92.886757
286.748505 -10.910206 90.017593
286.794250 -10.967823 90.267616
286.801361 -11.003960 94.537209
281.878723 -10.652925 90.141052
286.632080 -10.975841 97.273125
275.652985 -10.680717 96.290642
281.898315 -10.856284 91.851562
281.113953 -10.538537 92.274918
281.494324 -11.970542 93.015091
281.728882 -10.926600 91.470322
273.661682 -10.185558 92.144585
276.945648 -10.449467 92.284447
281.281769 -10.705018 90.581169
281.108521 -10.691644 91.833923
285.175476 -9.839341 94.244186
286.917511 -10.859313 94.770363
286.794891 -10.887941 94.168297
289.059021 -11.256395 92.100433
273.486755 -10.555094 92.921951
272.584503 -11.459129 96.219223
274.522888 -11.144782 96.368156
274.470215 -11.149653 96.499115
281.886566 -10.271141 95.811256
281.871338 -10.273793 96.271202
286.668518 -10.950532 97.564133
286.940613 -10.255244 103.203735
287.109039 -10.162166 104.113609
281.073425 -11.520630 112.783722
282.290436 -11.010671 100.709732
282.023438 -10.993927 107.331093
281.581787 -10.980240 92.538544
282.210236 -11.452834 100.628418
281.835968 -11.537880 105.900169
282.853882 -12.294314 103.634003
281.849243 -10.684758 112.015984
275.361786 -11.244310 106.774422
275.215973 -11.238784 107.181664
274.522308 -11.837378 112.840721
291.518829 -13.542879 113.440178
291.772949 -12.532555 113.381844
291.503448 -12.907762 112.620651
293.039825 -12.213028 119.151825
293.155273 -12.565065 113.834473
289.871582 -14.763856 134.624496
281.336853 -9.747795 85.649010
281.324799 -9.738470 85.772324
283.170959 -9.575407 86.164017
283.166351 -9.565025 86.215012
281.148712 -9.789759 87.326897
285.597473 -9.769743 86.009972
283.661926 -9.684841 86.490807
279.028259 -11.492558 86.899780
281.325256 -9.768716 87.087494
281.335938 -10.065004 87.464149
281.346375 -10.173749 87.444603
281.395691 -10.086328 87.293381
281.379791 -10.071095 87.457176
281.178314 -10.694678 87.512527
281.546539 -10.146854 86.631691
274.034180 -10.345908 98.784065
286.055328 -9.836757 99.286392
282.824585 -9.836346 97.936096
290.037201 -11.477387 98.146431
276.661499 -11.314333 96.738647
274.635040 -11.670632 103.547112
274.961975 -10.776490 99.913155
275.161591 -11.263710 100.288307
274.574158 -10.865062 100.142296
289.807983 -11.159301 99.136505
289.791107 -11.176631 99.152237
281.960510 -10.509108 101.017242
282.036438 -10.320599 99.996513
296.452423 -13.703211 100.615028
296.357086 -13.693563 100.499725
296.481506 -13.715799 100.697479
281.674225 -10.185515 92.220367
281.688446 -10.189299 92.172157
280.114655 -9.993738 92.082512
281.162445 -10.662387 92.235214
280.255737 -10.072820 92.359550
280.214569 -10.057765 92.430840
278.980865 -10.818358 86.988327
286.753815 -10.587732 81.704407
286.144714 -10.362114 82.060829
282.563812 -9.621174 89.180092
282.540192 -9.578072 89.517593
282.608551 -9.643718 88.841446
282.606842 -9.759191 88.113762
286.711578 -10.157688 90.851761
284.967346 -9.947169 89.857384
273.577637 -10.259697 92.399467
281.233093 -9.793487 92.216759
281.414825 -9.853240 90.994934
281.371460 -9.907122 91.255836
280.820557 -10.453928 83.027435
286.803864 -11.083480 87.501907
286.736206 -11.080809 87.290535
286.823914 -11.088068 87.518242
281.162689 -10.598867 88.764870
283.701111 -9.695409 87.553711
286.812805 -10.603569 89.460182
286.762543 -10.675803 89.258926
286.754028 -11.165583 88.757675
285.962250 -9.825891 90.721130
285.930939 -9.842266 90.624077
282.812592 -9.571783 91.294060
281.399811 -10.365208 91.960953
281.616364 -10.223389 91.969437
281.590759 -10.739899 92.753227
281.644409 -10.834474 92.248001
276.334686 -11.216250 101.180130
298.722046 -13.951215 104.406761
286.023438 -9.947073 103.576195
286.157318 -9.833505 105.821289
285.863495 -10.022182 102.434242
293.521729 -13.193807 99.875275
275.575623 -11.241445 99.789711
296.639313 -13.772885 102.593956
296.584320 -13.748617 102.487312
296.624359 -13.750691 102.588348
285.997620 -9.974426 103.400528
285.580902 -10.186630 98.225632
282.091919 -11.269651 99.460846
283.374817 -12.276280 105.517738
281.494049 -11.329941 107.283897
282.273804 -10.456380 104.047585
282.323639 -10.116208 104.997070
275.337769 -11.250111 106.855270
274.479187 -11.469715 113.346931
274.987762 -11.883182 110.537804
293.584381 -12.572841 114.725578
292.984558 -12.668134 113.030449
290.302612 -13.002872 116.151077
283.431091 -12.389922 126.823456
288.915314 -13.530449 127.054947
283.732574 -10.501605 125.643272
283.886200 -10.691985 130.162048
284.502228 -12.392988 146.578674
287.187561 -15.689192 165.956345
281.123474 -10.539566 92.240005
281.695923 -10.160517 92.085251
281.207977 -10.744793 92.052017
281.149658 -10.653428 92.266754
289.964783 -11.204712 90.693672
283.723053 -9.325231 88.983406
281.358215 -10.025888 86.876846
281.342316 -9.984599 86.940102
280.875458 -9.487311 89.025208
279.190216 -10.666401 87.180328
286.717743 -10.653206 87.177399
281.235504 -10.463244 87.506485
280.438019 -10.457695 75.285805
280.392548 -10.445975 75.445091
280.561371 -10.494591 74.842476
279.364075 -11.142776 75.430206
280.678223 -9.925293 75.480827
280.625519 -9.491778 75.432358
280.942963 -9.384618 75.365799
281.067780 -10.494755 73.519867
282.024780 -9.185869 76.737518
282.121704 -9.295802 75.999023
282.113586 -9.316807 75.957253
282.128967 -9.347538 75.710983
280.469116 -10.438848 76.941696
280.717346 -10.464412 76.233353
280.740479 -10.469383 76.184067
280.784149 -10.005752 76.244781
280.795624 -10.011123 76.195251
280.913147 -9.725843 77.752350
282.267883 -9.314209 79.446190
282.338898 -9.508719 77.795753
282.669952 -9.344893 78.973885
282.655914 -9.423588 78.491135
282.660309 -9.536931 77.338142
282.222137 -9.347455 79.159134
281.020599 -9.799180 80.031929
285.652679 -9.661903 81.973869
281.032135 -9.884981 81.638252
295.207733 -12.288424 80.610703
283.508423 -9.537170 81.788277
280.905853 -9.875518 83.186111
286.052368 -10.401517 81.496269
287.092316 -10.564075 81.155769
286.537476 -10.262883 81.836609
286.050262 -10.403465 81.627647
286.870667 -9.935965 81.457649
287.008789 -9.897300 81.746124
287.705933 -10.332382 83.067490
287.607269 -9.731106 83.399788
295.575836 -12.527766 82.023499
288.473297 -9.950933 81.725449
285.712494 -11.046432 81.450607
295.988068 -12.455833 82.449486
285.279694 -9.702177 85.446838
285.460968 -9.646661 86.311287
281.200256 -9.856610 85.012367
287.839203 -9.973569 82.629028
285.268677 -9.708650 85.346474
285.231781 -9.736052 84.998283
281.430389 -9.845811 84.518196
287.295471 -10.496147 79.149361
294.948425 -11.344083 84.690613
295.500702 -13.397929 86.450989
285.874268 -11.022575 82.339005
295.614929 -12.156238 87.137291
295.607452 -12.152220 87.119164
285.536896 -10.070293 83.070251
281.294220 -9.824289 91.979202
281.285217 -10.627025 88.352455
286.606171 -10.087413 90.417953
287.090271 -10.814105 92.113510
288.561249 -11.525509 106.336540
286.961273 -11.352922 96.010216
287.928650 -11.399122 102.684181
279.290222 -11.354489 97.957085
281.661285 -12.065463 94.592918
291.898743 -14.382522 121.389648
285.843903 -10.396642 111.484497
283.764587 -12.381981 151.853790
282.810120 -11.992100 118.897682
294.203156 -14.427641 119.747108
283.769623 -10.451747 126.979034
293.374023 -15.423365 132.327072
279.678101 -10.269300 68.162643
285.647186 -10.026520 68.327606
286.471039 -10.412855 68.146217
283.076813 -9.369687 70.844376
280.410858 -9.609884 70.974854
280.256500 -9.518719 71.999397
280.313324 -9.449615 71.797775
280.181396 -10.407689 71.332092
279.806885 -10.325814 73.208298
287.169220 -10.154489 105.373428
287.086548 -10.197926 104.637215
293.465240 -12.804225 97.170914
275.040894 -11.946101 116.815056
275.630188 -11.855588 113.129944
276.201385 -11.998610 112.813599
276.133270 -12.017644 112.957710
275.828552 -12.106020 114.928680
276.416107 -11.695847 108.675133
282.812775 -11.336989 118.641495
282.798798 -11.428049 120.669052
283.835388 -10.543329 127.711082
292.266968 -13.031977 145.588196
284.220184 -12.263373 140.758087
284.360901 -12.251101 140.566208
281.198822 -10.218434 86.533226
278.924835 -10.811584 87.073036
283.734131 -9.659197 87.860229
281.401062 -10.082022 87.254059
295.541473 -11.440070 88.051315
285.874603 -9.760694 91.350540
285.818512 -9.843631 90.065651
285.886993 -9.810423 90.377388
285.930389 -9.788806 90.589478
285.776428 -9.859776 89.261093
285.803497 -9.899033 89.189606
286.708282 -10.125087 90.905663
281.287659 -9.797561 92.030396
281.254608 -9.784152 92.177986
281.294495 -9.808361 91.765350
278.551025 -10.801188 92.352539
286.887299 -10.802451 94.388420
286.002136 -11.291576 89.492874
281.723572 -9.858967 95.089638
286.629333 -10.959799 97.417137
297.622498 -13.672652 115.193130
293.388428 -12.814523 100.421402
281.252045 -10.746934 103.241982
281.517792 -11.030314 92.733765
282.803619 -12.007452 118.287430
282.250183 -12.335779 103.158600
284.718597 -9.977187 108.401932
284.728851 -10.067294 105.976318
284.711212 -10.028978 106.825699
275.465424 -11.832296 113.759850
275.135345 -11.866398 110.205238
274.757263 -11.861015 111.945442
296.265503 -13.142586 103.210342
289.304657 -12.755749 116.678093
286.119141 -10.337134 118.348152
283.485199 -12.217846 121.519836
290.168030 -13.368831 131.178360
284.550629 -11.672469 151.789795
284.499207 -12.339602 146.886719
282.855164 -9.683586 94.032593
281.671997 -10.664110 94.550621
287.304382 -10.298092 94.305328
279.344147 -10.200909 58.667713
278.694641 -9.254210 58.883862
279.381592 -9.612491 58.777504
279.389740 -9.597500 58.751598
278.166656 -10.377254 58.902325
278.880737 -9.141372 59.704182
275.705933 -9.851829 58.945030
278.962616 -10.873832 59.525372
285.364441 -10.782447 60.390263
278.647339 -9.568686 59.015720
285.118622 -10.757320 59.501129
285.298645 -10.775055 60.247875
276.372955 -9.907670 57.623718
279.123108 -10.829561 58.870827
277.154358 -10.286550 58.823360
283.498260 -9.244430 59.673759
275.306305 -11.363452 63.925266
291.180267 -9.552141 65.210045
281.954712 -9.194287 59.411293
293.644867 -11.461828 59.712307
288.153839 -9.939812 60.394833
290.405823 -9.672380 63.549809
279.867828 -9.775522 59.503086
284.962158 -9.537172 61.781120
280.637695 -9.256805 61.531071
294.633301 -11.291426 61.594841
277.897034 -10.886333 32.511272
278.484924 -10.297535 58.719463
285.104156 -9.990344 57.527554
295.708160 -12.618240 82.828796
279.462097 -12.134943 91.034019
286.132782 -9.558313 91.071312
281.681091 -12.067271 92.799171
290.010193 -11.119380 78.911392
287.597260 -11.165876 84.643295
290.341766 -15.055332 140.671860
290.201782 -13.400799 131.667755
279.757904 -10.141952 58.764606
285.472198 -10.309155 63.163765
279.719513 -9.668141 63.503925
279.914429 -9.682853 63.865799
286.576935 -10.784286 64.422134
286.630676 -10.771613 64.539474
279.987793 -10.140777 63.040417
279.533691 -8.909417 66.029106
284.643524 -9.547059 62.649189
280.607056 -9.291583 63.810654
280.770294 -9.257655 64.069725
279.973022 -9.729136 63.595291
284.874573 -10.251478 58.267673
280.822479 -9.308477 63.814980
280.813141 -9.287926 63.847839
280.094574 -9.528474 64.532433
281.075287 -9.313967 63.977169
285.835999 -10.839501 63.598469
280.761414 -9.312170 64.807693
285.077026 -9.703701 57.196838
279.860718 -10.110941 60.975990
279.341003 -10.104088 58.748413
278.169739 -10.391454 58.818764
277.546234 -9.617087 58.748661
279.120453 -9.998596 59.404961
279.682373 -9.307364 58.690819
278.754639 -9.861157 58.729210
279.248962 -9.272341 58.814983
279.281921 -9.280607 58.718552
277.212463 -10.519001 59.559296
278.285522 -10.528336 58.814579
279.305054 -10.180620 58.713230
278.500092 -9.739034 58.764637
278.250610 -10.527157 58.881207
278.607239 -10.770807 58.752270
279.645996 -9.651453 58.675777
279.070160 -10.661508 57.965233
284.604492 -10.771248 57.030022
285.076721 -10.696609 58.470901
287.610199 -9.490935 58.489964
287.542236 -9.521979 58.988235
277.170868 -10.280623 58.868584
277.189789 -10.278391 58.818012
287.953094 -9.944941 59.489532
288.801178 -9.860787 59.625217
288.848877 -9.864439 59.712257
285.718262 -10.470473 63.704170
284.509552 -8.878492 64.172806
279.760315 -10.230974 59.785099
279.801147 -10.239845 59.556767
280.681396 -11.556608 60.760460
280.639282 -11.608585 61.411484
279.852905 -9.770540 59.541378
279.875732 -9.806049 59.504147
279.994293 -9.508482 60.255833
280.121094 -9.566989 59.498165
279.434387 -9.797997 53.571312
279.502991 -9.276462 54.736248
287.211609 -9.447499 55.376976
280.926636 -9.089437 55.463486
277.136658 -9.097279 56.481075
281.699677 -9.173901 55.522079
280.771942 -8.696219 58.967369
287.405090 -9.502280 56.049702
287.418945 -8.979371 59.627922
277.430847 -9.141353 57.178516
285.794830 -9.792549 57.101898
275.746521 -9.133949 57.626980
285.626404 -9.253278 57.736862
275.937836 -9.133734 57.676361
282.576843 -9.221682 57.992493
284.335052 -9.357998 57.396175
277.406647 -9.124969 58.238129
277.228119 -9.119431 58.810287
284.930328 -10.032676 56.500374
285.498138 -10.206614 57.576618
286.115204 -10.056607 57.759037
284.944305 -10.104186 57.862415
286.042145 -10.108704 57.788906
286.292389 -10.075555 57.964485
285.074341 -10.300786 58.148922
285.805420 -10.670165 58.628529
274.620361 -9.113751 58.748146
274.656738 -9.142902 58.651512
277.842438 -9.996955 58.659275
278.876923 -10.637039 37.287323
278.530212 -9.104023 38.282913
278.745178 -10.481827 38.380428
278.645416 -10.401620 38.329842
278.714447 -10.537680 38.229397
278.772003 -10.436229 38.371624
287.285004 -10.355680 39.826424
279.059265 -10.286018 44.030506
285.090820 -10.124001 44.291546
278.450684 -8.682062 47.775311
278.991547 -9.305544 45.191769
278.716217 -9.594837 46.329975
280.228455 -8.915092 47.220894
280.360474 -9.055730 46.308144
287.684143 -10.270844 47.082085
283.671112 -9.175249 47.178951
278.949738 -9.243920 47.897858
282.506134 -9.191266 47.299595
278.992218 -11.060674 48.947563
278.680115 -10.584693 43.105633
278.752686 -9.744252 43.218689
278.664856 -9.086056 43.306831
278.619995 -10.283445 43.320335
283.987885 -10.025930 42.140926
283.951355 -10.033584 41.895191
282.865051 -9.063198 43.257629
283.400848 -9.121546 42.862446
283.548523 -9.031853 43.423054
283.914001 -9.395556 43.334293
284.493835 -10.296320 43.325119
284.499237 -10.301247 43.308468
283.975281 -9.627766 44.090546
278.944672 -9.002985 44.040512
284.922760 -10.297877 43.371552
281.750183 -9.052063 44.570606
278.992889 -9.323777 45.202858
279.022430 -9.248220 45.663857
283.264221 -9.176140 46.010387
283.284210 -9.157940 46.036934
280.385284 -8.980471 46.555386
280.353821 -8.946394 46.804008
279.987274 -8.762873 48.942513
278.943420 -10.950776 44.913017
294.443542 -11.371523 49.776241
278.472748 -10.903905 46.317074
279.004822 -9.265226 47.769524
279.013702 -9.264585 47.803547
278.990753 -9.257575 48.217052
284.148163 -9.313567 46.558865
295.736206 -13.003448 53.309620
293.769135 -12.041976 53.694340
285.033997 -10.321152 58.087254
282.660095 -9.257946 57.569130
286.276154 -10.359680 59.135792
286.094482 -9.464378 58.225693
294.107941 -12.210654 61.005726
294.287964 -13.453918 58.959805
293.424957 -11.488606 59.479752
294.325836 -13.460960 60.928139
286.885834 -9.834023 59.578972
279.873627 -9.862077 59.419720
294.549957 -13.506888 62.662319
283.857452 -9.922846 37.453571
283.853241 -9.280625 41.372147
278.863495 -9.875426 40.847546
278.628998 -9.519032 41.535408
278.736969 -9.205140 41.156979
278.749725 -9.209727 41.144924
278.743439 -9.217518 41.144810
284.983124 -9.914017 42.569942
285.157074 -9.908669 42.925171
278.984161 -10.015374 43.780952
278.969391 -10.021485 43.798340
278.744659 -10.639315 43.193802
278.946503 -9.653210 48.850605
286.963898 -10.500641 52.026112
289.181213 -10.427251 56.220825
279.295349 -9.461696 54.239799
276.799042 -9.014128 57.436245
277.229492 -9.119133 56.257462
287.285339 -9.462810 55.544640
281.032288 -9.178831 54.949333
275.025330 -9.114479 57.047840
279.548035 -9.288732 54.902733
277.434601 -9.168671 57.053623
275.889282 -9.330136 54.878952
285.018463 -9.811502 57.133232
275.047791 -9.111256 57.043568
278.988312 -9.571436 49.301205
279.251617 -9.266452 49.641140
278.873535 -9.657570 47.695782
279.178192 -9.335646 49.492599
278.851593 -9.685145 49.463509
279.200012 -9.349325 52.364365
278.806702 -9.583800 53.253178
280.895996 -9.119351 52.460403
293.425995 -10.773315 53.586376
287.731384 -10.265840 54.191898
287.120239 -9.418577 55.103439
279.163361 -9.322968 50.119431
279.954651 -9.157494 51.692020
280.662445 -9.041651 51.631790
280.368317 -8.261926 63.999893
295.856995 -12.359274 53.067619
292.440918 -10.780695 52.335869
293.321228 -10.755805 53.456612
293.017426 -10.777605 53.012257
280.905823 -9.340079 50.819263
279.562195 -9.307331 54.548023
294.279907 -12.219451 54.918850
285.068390 -9.809488 57.309223
277.412506 -9.179504 58.275089
285.407288 -9.554406 56.990997
285.509979 -10.230297 57.644981
294.684265 -12.289376 58.320328
285.237152 -10.756085 60.036919
283.233765 -8.678555 67.037590
282.724426 -9.193253 58.493267
279.084564 -9.284418 59.660725
277.362030 -9.173364 58.574814
276.964142 -9.007510 60.830990
279.118988 -10.836413 58.876213
285.895844 -10.723762 58.109428
285.867340 -10.707503 57.963352
295.399536 -12.364668 60.017597
279.803101 -10.256794 59.099739
293.895447 -12.214864 57.541237
293.083374 -12.108582 56.146912
279.824646 -10.250374 59.080917
293.251617 -12.030223 59.395397
279.459259 -11.707658 64.375565
280.169067 -11.749026 70.427734
280.164581 -10.036495 67.081017
294.098694 -12.742116 66.434921
283.175415 -9.590261 80.605263
285.007324 -9.728932 71.234604
280.793152 -10.108434 77.163139
285.479462 -10.732988 70.060455
286.471100 -10.703877 78.502319
285.755280 -10.650507 72.655380
285.651123 -10.672270 73.131447
286.420044 -10.405125 83.014328
294.420471 -13.273487 78.367653
293.933258 -13.230627 76.880745
293.147156 -11.921509 73.702759
280.932098 -10.269144 80.375473
296.498199 -13.687928 91.226906
283.631348 -11.953038 120.618797
285.203583 -9.958928 57.801743
285.940765 -10.117623 57.432720
285.036682 -9.700822 53.729813
282.590790 -9.232592 57.882164
282.580505 -9.278118 57.403885
284.948090 -10.289371 57.634277
286.218414 -10.642881 59.141506
278.595551 -10.782259 58.773048
279.341064 -10.210939 58.689316
287.843079 -10.024472 57.885239
277.921387 -10.444117 58.891216
277.909790 -10.453649 58.862675
279.251160 -9.391528 59.047142
279.570435 -9.552738 59.239254
276.854919 -10.330230 58.327343
275.384735 -9.748679 59.788509
278.588654 -10.790032 58.752834
277.823730 -10.455671 59.112720
275.780975 -9.735518 58.835983
279.542389 -10.805338 56.356102
284.879883 -10.123927 59.921253
279.250031 -9.459990 52.954224
288.289032 -10.424195 54.040695
287.720459 -10.211782 53.873390
279.481079 -9.479871 53.543182
287.698578 -10.115004 54.315548
287.669891 -10.118234 54.280659
287.638184 -10.063782 54.229004
288.020264 -10.448253 53.762878
278.729950 -10.579285 42.996746
278.661011 -10.582994 43.226486
284.304962 -9.924766 42.971886
284.185791 -9.230578 52.375347
279.795288 -9.082263 52.250355
279.821625 -9.097419 52.114216
279.779633 -9.076415 52.320522
279.787689 -9.077635 52.280350
279.917511 -9.109776 52.201576
286.309692 -9.352028 52.251133
287.677002 -10.212561 53.812763
287.928680 -10.189393 54.127533
287.917603 -10.180858 54.153229
287.759125 -10.207484 53.766903
288.026093 -10.453383 53.754402
279.252930 -9.263439 49.652004
284.835358 -10.066877 58.072098
281.251526 -9.636192 52.173992
285.048859 -10.074585 61.243950
287.653503 -10.072467 54.452381
291.756805 -12.051645 58.474808
286.356873 -9.697418 57.424114
278.499176 -11.455794 59.273380
277.948181 -11.610209 62.446476
279.802094 -10.247578 59.408997
284.815308 -9.519882 61.067867
286.581146 -9.621406 58.149422
280.649384 -9.277273 61.394196
293.636078 -11.341758 59.970493
284.917023 -10.584569 60.482826
285.027283 -9.455573 62.441830
284.866486 -9.525516 61.709015
288.471680 -10.547899 63.527950
294.729370 -12.508104 64.934494
284.390289 -9.535441 64.323013
284.953247 -9.622463 65.181587
280.452698 -9.950485 68.652771
285.473999 -9.644337 72.608528
293.188690 -13.032760 74.295753
280.569397 -9.595260 73.442406
283.290466 -9.626437 79.371307
286.325043 -10.683167 76.699013
292.625366 -12.781786 73.555122
293.565369 -13.009884 76.576401
293.598267 -12.904776 100.508690
291.016327 -12.414537 88.030045
285.794769 -10.088677 84.375626
294.893616 -13.202975 107.307587
282.132538 -12.927022 112.342865
291.719543 -12.584868 99.652267
292.007812 -11.660279 117.965599
275.731628 -9.121315 58.657501
277.272217 -9.146146 58.715950
285.993103 -10.690135 58.200142
278.928528 -9.982252 58.790287
277.956329 -10.446196 58.828957
278.127838 -9.783388 58.712772
276.026367 -10.079062 58.806164
279.660889 -9.294102 58.779385
278.369446 -10.201363 58.709721
277.946320 -9.365598 57.727478
276.053986 -9.865522 58.869629
279.384644 -9.626588 58.756245
278.580841 -10.769138 58.814121
278.777710 -9.306092 58.768097
279.342377 -10.087623 58.737152
278.244263 -10.530561 58.907406
278.885590 -9.586623 58.722973
277.979340 -9.440997 57.591167
278.493073 -9.615655 58.690762
278.788269 -9.308847 58.751202
279.137726 -10.833489 58.861916
277.462646 -9.958845 82.329163
289.744354 -10.461519 63.255913
279.871002 -10.271534 63.632580
284.809021 -10.524884 62.708656
294.615356 -12.124201 64.700783
293.920898 -12.637663 68.674278
295.168304 -12.860387 71.674736
292.772858 -12.390752 66.567719
280.198303 -9.733099 68.207100
285.336578 -9.527645 67.620155
280.326324 -9.420390 68.262787
280.458008 -9.459730 75.973557
280.704346 -9.538109 74.374870
280.348145 -9.444462 77.659927
280.653900 -10.678240 67.007462
278.217804 -11.325531 76.459114
283.281067 -9.526601 81.167770
283.214172 -9.557193 80.107422
283.267883 -9.523476 82.513519
281.081299 -10.159251 90.030098
295.772919 -13.461879 86.984863
281.447754 -12.040874 91.378609
295.837585 -13.451160 87.357330
293.480225 -12.920321 100.281204
293.754272 -12.917036 101.178993
291.730194 -14.949892 123.586456
280.648621 -9.232452 61.587658
279.729462 -9.463602 62.593056
280.064087 -9.279698 61.461807
281.204498 -9.164666 61.611710
281.346436 -9.459097 59.928967
284.929932 -9.555867 61.743000
279.999878 -9.402853 62.789078
281.025452 -9.282193 64.175858
294.714996 -12.267308 64.880814
294.429626 -12.204564 64.536263
285.349091 -10.465339 65.983147
285.119476 -10.521851 64.835030
285.510254 -10.469538 66.986931
294.412659 -11.460408 64.984428
284.330902 -9.564314 64.757172
280.194977 -9.592036 65.715111
285.278015 -9.584352 67.057777
280.226562 -9.732893 66.272057
280.419434 -11.572052 66.973557
280.325104 -9.380047 68.438377
280.084656 -9.874858 68.926933
283.017303 -9.268531 71.316551
283.028290 -9.322214 70.997231
283.030396 -9.202081 72.284943
282.887665 -9.417191 69.447289
281.950684 -9.232869 70.564522
281.639282 -9.372499 69.534088
282.918304 -9.407825 69.968636
284.939270 -9.462866 72.978561
280.471375 -9.942188 68.327385
284.866150 -9.537128 72.078362
284.849243 -9.544699 71.693466
284.846802 -9.565710 71.860855
292.254547 -14.617421 115.552361
278.749878 -9.852839 58.748455
278.403076 -10.169072 58.775921
278.957550 -10.207191 58.676346
278.628693 -10.308355 58.689770
279.277374 -9.948019 56.852283
277.651947 -9.836701 58.837639
277.818634 -10.599755 58.629601
278.438141 -9.967144 58.705368
279.370544 -9.873046 58.748390
279.527283 -9.930220 58.752594
279.584473 -9.321042 54.124550
279.534821 -9.297140 54.769333
287.267365 -9.450045 55.506039
286.995239 -9.443116 55.252663
287.000153 -9.509355 55.077816
287.003082 -9.422601 55.105930
279.555359 -9.292765 54.769920
286.980560 -9.533162 54.910137
294.231873 -11.922879 55.782078
275.858856 -9.150952 57.289162
285.487000 -9.825699 54.679405
284.994354 -9.810956 57.102676
282.614105 -9.237350 57.913300
282.619781 -9.226975 58.019337
287.391602 -9.544259 58.171715
285.005188 -9.946533 57.741673
276.643311 -8.963141 59.898823
285.546539 -9.790376 59.758087
285.930328 -10.074775 57.064812
284.960571 -10.128004 58.033020
286.178894 -9.937705 57.670341
275.664185 -9.117099 57.871105
275.683441 -9.115922 57.804176
284.714111 -10.082033 56.843491
285.744507 -10.695245 62.496090
286.020447 -10.688248 58.154736
279.372681 -9.574710 58.814625
278.539246 -10.354393 58.662182
279.626801 -9.266305 59.070747
279.101837 -9.320904 60.144779
278.584076 -10.799260 58.786247
279.171234 -9.578895 59.648373
275.823212 -9.796479 58.679043
277.190125 -10.272202 58.780869
278.088348 -11.057689 58.987617
281.060425 -9.140673 60.469082
288.058014 -9.966244 60.080399
286.320679 -9.645610 57.641685
286.888153 -9.633548 59.165855
284.337280 -9.168985 63.587719
284.146149 -9.300414 61.770802
284.230530 -9.271323 61.923782
281.210571 -9.118922 61.547882
281.160095 -9.259151 59.432129
281.220825 -9.173359 61.096245
279.949432 -9.835449 58.723236
293.056427 -11.977201 59.151779
294.373993 -12.148801 61.624992
288.116425 -9.958714 60.216534
287.565094 -9.851055 62.828571
281.377563 -8.913523 74.842224
280.329529 -9.445358 68.119804
280.136353 -11.744881 69.684982
285.727203 -10.407386 73.247269
285.550781 -9.621745 73.303291
280.463074 -10.563285 68.523788
281.197296 -10.544965 89.242386
281.658539 -11.953822 91.535873
295.795624 -13.466986 87.100334
294.927429 -12.290333 88.737984
292.066589 -12.657776 101.224495
288.297546 -11.339845 90.445053
293.199615 -14.195111 113.742996
282.864349 -12.028795 120.055534
288.513519 -11.428672 92.433975
288.865204 -11.385938 94.833931
292.889526 -14.194798 115.485863
279.181305 -9.302961 52.991615
286.311127 -9.334790 52.445023
278.986420 -9.302567 53.591576
277.650665 -9.151188 53.411156
277.384186 -9.079175 54.042110
293.842316 -13.173590 75.914986
280.556030 -9.596873 73.288513
279.696198 -10.423285 79.325813
280.407593 -11.501618 68.076668
280.406281 -11.561419 67.909035
280.741699 -10.024991 77.214195
294.571045 -12.497575 72.904572
286.122711 -10.433273 80.682617
281.001190 -12.251511 75.193756
280.561340 -12.120690 89.411652
284.459961 -10.813573 71.343719
296.950073 -13.610250 89.572304
285.888794 -10.061932 84.903114
293.548340 -13.365213 96.667953
296.196625 -14.108404 109.240677
291.928802 -13.115315 90.766724
295.599579 -14.063121 107.071953
293.238708 -12.859693 100.123672
281.520020 -11.442204 93.373161
290.481049 -14.120515 124.396332
290.788666 -14.896611 121.538467
290.749908 -14.891337 121.331238
291.502258 -14.784198 121.532387
284.088165 -9.412429 68.503479
282.970276 -9.426453 70.004677
281.630981 -9.258792 71.549316
281.755920 -9.580453 67.594772
287.527161 -10.487767 82.606209
294.583344 -11.744215 75.338524
292.175659 -11.561712 70.812675
281.737732 -9.493859 69.272705
280.384827 -10.241955 71.866837
282.357697 -9.463521 70.193832
284.896210 -9.451094 72.819527
281.235992 -9.388796 74.948990
276.637360 -10.677229 75.660629
276.593140 -10.672492 75.779678
276.493805 -10.673718 76.033562
280.545288 -10.402706 72.271935
275.429626 -11.070474 75.508156
275.072510 -11.134310 76.522026
280.541656 -9.596126 73.335983
280.458618 -10.506564 75.692490
279.991577 -10.428867 82.673164
283.232635 -9.631245 78.992386
290.426544 -11.109131 79.893250
290.434418 -11.097590 79.948296
290.581696 -11.093151 80.483833
286.244049 -10.584107 81.689400
283.142731 -9.700244 78.116486
295.540924 -12.475230 81.417625
285.612915 -9.668288 86.982094
295.757538 -13.033587 86.527534
295.956604 -13.117897 86.984482
281.215454 -10.703127 87.819893
281.288239 -10.265547 84.348457
286.654846 -10.910226 89.766907
283.040070 -12.833573 106.317863
291.678192 -13.853714 114.343849
280.412720 -9.485137 71.466736
282.336853 -9.347851 71.163628
282.347504 -9.228407 72.203781
280.492249 -9.814960 71.737740
280.490387 -10.388156 72.920036
280.365234 -10.379133 73.553864
284.995514 -9.498394 73.255760
284.983887 -9.479836 73.081337
279.731781 -9.889775 62.258701
280.019073 -9.398241 62.708771
280.548187 -9.382993 74.014694
292.603088 -11.546015 72.138992
295.311249 -12.494584 72.998497
284.990753 -9.537541 73.038841
274.116913 -9.373189 75.031586
281.225433 -9.348517 75.329231
284.406097 -9.477519 74.367134
284.400055 -9.493258 74.277786
276.567871 -10.658343 75.903503
272.136597 -10.345966 75.861153
275.673737 -11.179633 75.595795
275.359650 -11.073778 75.688698
280.372620 -10.460443 75.583237
281.219269 -9.331822 75.377174
278.333618 -11.329746 75.636574
278.354126 -11.305966 75.540001
281.094910 -9.863697 70.661102
296.366089 -13.191936 79.606071
280.302185 -10.852037 83.752090
286.275055 -10.591581 81.787712
285.478027 -10.483254 76.957382
287.071808 -11.126014 81.543106
286.435364 -11.169217 83.649017
285.853912 -10.100511 84.686287
293.040741 -13.303896 94.572754
281.412598 -9.896026 89.957657
281.541840 -10.205750 88.811272
281.727936 -9.906134 91.836754
286.800140 -10.896590 90.778519
288.128387 -11.922584 80.083488
283.928436 -12.945849 104.251411
283.601410 -10.435538 115.035110
279.963562 -9.012145 76.945221
280.998840 -9.175657 76.208778
279.030090 -10.809404 75.467224
280.521210 -9.394144 75.535873
279.011047 -10.809426 75.479378
285.115936 -9.929663 64.185959
280.107483 -9.792063 63.745464
280.194214 -9.574482 65.743317
280.209808 -9.580296 65.688622
281.203003 -9.261664 64.007919
287.767670 -9.464878 96.630951
287.748779 -9.313076 98.370483
287.917694 -10.044776 82.544395
295.602051 -13.431145 86.514763
295.809204 -13.453163 87.198135
286.757690 -9.984933 91.516899
295.720642 -13.652118 89.652313
295.810974 -13.612974 89.838951
281.356567 -9.868847 91.174431
281.145905 -9.784785 95.762146
281.385681 -10.564373 88.578667
281.676056 -11.389462 91.011902
281.756439 -9.866805 91.783058
286.498474 -10.045094 90.059891
286.638580 -10.986100 97.404854
281.891418 -10.873766 92.214752
297.156860 -13.556589 113.909027
286.991943 -10.245657 105.816299
276.852325 -10.740417 113.956108
285.261841 -10.104995 109.003052
287.017212 -10.248682 106.100662
291.306732 -13.468762 122.708488
280.780121 -10.508511 79.789352
280.967285 -9.820903 80.130737
280.983063 -9.838410 80.034752
281.014221 -9.637350 80.097702
280.777924 -10.511496 79.793259
291.103271 -13.989469 115.968407
298.400116 -13.814225 115.289528
290.501526 -14.029711 124.159630
292.285156 -14.676476 138.246826
283.858002 -10.548835 124.988464
283.995209 -10.178363 115.926605
280.365967 -9.946781 71.822075
280.391266 -9.617165 72.224274
280.504242 -9.326783 72.201164
280.540314 -9.403442 72.431068
284.386780 -9.497804 74.229355
281.303680 -9.466432 74.382332
278.130005 -11.066929 75.460899
278.114807 -11.062267 75.502708
280.138092 -10.385909 71.714729
280.408295 -10.458575 75.338615
280.402954 -10.451119 75.490570
280.324249 -10.433859 76.196663
280.584167 -9.454000 75.383591
276.319916 -10.140018 75.300598
280.459412 -9.450956 75.856247
280.798920 -10.057913 76.143219
280.675812 -10.482764 76.376732
296.199371 -13.171145 79.397575
296.433716 -13.349545 79.902222
288.999573 -10.998656 79.536034
289.258453 -11.051795 79.983742
289.194672 -11.040644 79.935143
289.223236 -10.984880 79.928955
290.899719 -11.294877 76.850861
283.330566 -9.780526 78.081047
283.477722 -9.521751 82.008049
283.433319 -9.562353 81.444206
283.368011 -9.549185 81.624298
282.892120 -9.573653 80.224899
280.767487 -10.557995 82.816032
287.466980 -9.790093 83.062584
294.191406 -11.173357 79.746674
295.640106 -13.383725 82.795288
295.282562 -13.354471 82.345802
287.750732 -9.919063 82.417709
288.265015 -9.899503 84.137505
295.789917 -13.079197 84.336578
280.482025 -9.313624 65.807007
281.217438 -9.296400 66.398933
280.089050 -9.761527 67.178368
280.958557 -9.308754 67.380424
284.643066 -9.425453 67.069466
280.697083 -9.233225 68.150322
280.265289 -9.724783 68.323563
280.263428 -9.728120 68.254494
280.385193 -9.371658 68.149475
285.797760 -10.017719 68.654976
285.693817 -10.304959 68.383598
285.801117 -10.347920 68.590652
285.802185 -10.362617 68.513786
278.735291 -11.511579 87.512360
281.233551 -9.799781 84.671646
282.623138 -9.459577 85.328072
280.571228 -10.510028 81.910881
280.778534 -10.510657 81.143898
282.874939 -9.461996 81.102142
286.164001 -9.494647 82.058884
280.550323 -10.011072 82.567322
281.014282 -9.638212 81.336853
283.548431 -9.535165 81.766129
283.713715 -9.519147 81.479721
280.506073 -9.567445 84.240219
286.038696 -9.660790 81.787811
286.511871 -10.254914 81.761414
286.747650 -10.586699 81.700294
286.695709 -10.603346 81.637131
286.324860 -10.574575 81.850655
286.273834 -10.740134 82.081055
285.709167 -10.730553 79.478874
286.089111 -10.578140 81.921883
278.266632 -10.881451 82.001961
288.825562 -9.892247 82.146812
281.199005 -9.700889 81.817726
288.147797 -10.020261 81.232994
281.128967 -9.569470 83.730835
281.154053 -9.870050 83.683609
289.048706 -10.244608 84.098068
281.696991 -9.656230 84.049339
291.079834 -10.162253 84.277863
291.089264 -10.161737 84.309845
282.620514 -9.480919 85.135468
282.629852 -9.496203 85.163330
286.128784 -9.939153 85.597420
281.432709 -9.825135 84.071533
285.184113 -9.707046 85.453468
290.465668 -10.067032 86.681808
282.411804 -9.473481 90.313637
281.340820 -10.126657 87.110703
280.790253 -9.933999 90.988571
280.844971 -9.988115 90.422768
281.544373 -9.824865 86.265450
283.739349 -9.668026 87.766861
280.810089 -9.320641 67.594170
280.109497 -9.690633 68.442047
280.420410 -9.423991 67.817520
280.258911 -9.863211 68.409996
280.220215 -9.739218 68.371788
280.288391 -9.749401 67.994812
287.361542 -10.248065 74.045998
281.899414 -9.279828 69.255226
295.523376 -12.687673 73.241852
280.478485 -9.914975 68.203056
281.389008 -9.234023 71.434669
282.986877 -9.405776 70.263557
280.197571 -9.305175 73.831123
285.519379 -9.645205 72.750648
285.414246 -9.674400 72.155533
291.749268 -11.842410 72.127853
291.867279 -11.860079 72.392944
294.139709 -11.645691 74.119675
293.056030 -12.487866 73.774261
294.629578 -11.898564 73.073639
269.209625 -8.579792 85.857796
272.276917 -10.502279 75.690430
273.240570 -9.815894 75.837898
273.184845 -9.805125 75.962372
272.449860 -10.854179 75.858795
280.541718 -9.604040 73.254593
280.523102 -9.437088 75.478050
280.675903 -10.486467 76.283707
280.681763 -10.504091 75.591751
280.823090 -10.093856 76.345879
280.863861 -10.160128 75.783791
280.866028 -10.227283 75.968964
282.880890 -9.526984 80.750839
286.187103 -10.382938 82.104088
286.259552 -10.378283 82.393143
286.506042 -10.394361 83.415054
287.321930 -10.592278 82.066505
286.118408 -10.573444 81.325706
287.052704 -10.603414 80.833939
283.254059 -9.582610 80.430534
295.529602 -12.507430 81.968185
295.457672 -13.082950 85.843201
281.535797 -10.060288 89.204872
287.026917 -10.928962 92.808289
287.854797 -10.858295 101.228455
281.941010 -10.911900 91.992874
280.913269 -10.771441 94.033478
286.851410 -10.247919 102.788033
286.888367 -10.317380 103.807579
282.330353 -10.889704 102.181885
290.231171 -13.400112 131.710449
279.827454 -10.237689 59.326710
284.719269 -9.958737 59.454060
284.777588 -9.948472 59.619957
285.139984 -10.202092 60.570709
279.821533 -9.543030 59.625835
279.832855 -9.551344 59.599968
279.815704 -9.546336 59.646534
279.839844 -9.555202 59.555302
279.862946 -9.734846 59.493389
281.246490 -9.145021 60.969486
282.950653 -9.296239 60.984100
279.948914 -9.385635 60.997696
279.877106 -9.570116 61.400253
281.064453 -9.233286 61.377678
281.063324 -9.215620 61.455868
280.651154 -9.265545 61.439453
282.717438 -9.266647 61.585278
282.723145 -9.257505 61.597496
282.731110 -9.247653 61.701199
283.981964 -9.298439 61.815620
279.822113 -9.506997 62.320690
279.622009 -10.205789 62.245739
279.979706 -9.551023 61.956497
279.703583 -10.206768 62.097950
281.445099 -9.139925 62.443092
279.732849 -9.658361 63.234020
280.191101 -9.278476 63.525875
280.407562 -9.284978 63.877441
281.870514 -9.200257 63.811020
281.885986 -9.234389 63.618687
280.422455 -9.276452 63.926430
285.335907 -10.535093 64.459358
285.266449 -10.211590 64.548843
285.532562 -10.151134 65.757538
279.627258 -10.248914 65.012115
279.891235 -9.367809 65.615738
280.094849 -9.522864 64.484230
279.965424 -9.737746 64.886406
280.227814 -9.867596 63.605339
280.192596 -9.576303 65.746758
285.311981 -10.463669 65.751930
285.333008 -10.484574 65.829376
285.261169 -10.455719 65.546585
281.216980 -9.304743 66.409660
281.232727 -9.343665 66.155907
292.743713 -12.173041 67.592476
280.359222 -9.363269 68.228973
282.052490 -10.950834 102.814125
287.364319 -10.806315 94.388832
288.045685 -10.432118 94.593887
287.295288 -10.173415 94.277870
288.003937 -10.463465 94.438988
288.614166 -10.093277 96.059952
287.052948 -10.844919 94.494591
287.150360 -10.832594 94.763191
286.361511 -10.926826 92.048813
286.863922 -11.037402 94.636833
281.722565 -10.295799 95.257233
286.838318 -10.785621 96.745720
281.632050 -9.775588 96.114075
287.453278 -10.796333 94.463875
274.562073 -10.300997 107.958145
274.624786 -11.272940 107.875786
275.010010 -10.606595 106.928001
284.831238 -9.986554 107.831429
275.001129 -11.752825 107.446465
282.463684 -10.639196 107.002708
275.007202 -11.779063 108.851715
282.670563 -10.597651 110.447426
290.392792 -12.973261 113.913109
289.288788 -12.737784 116.983849
289.432159 -12.781647 117.479225
286.212708 -10.356822 120.676193
283.084290 -11.119553 119.808319
283.161133 -11.203872 118.087044
283.131744 -11.196304 119.198494
298.424805 -13.856723 124.681152
288.939880 -13.916254 129.859879
291.138855 -15.676583 153.329590
288.751099 -11.594282 159.954163
293.532806 -11.801247 171.980804
290.547852 -15.983502 161.964966
294.120880 -13.172451 162.436035
289.278351 -14.018383 164.395691
289.226715 -13.969034 161.868652
288.972839 -12.204563 163.716980
289.074951 -11.783684 165.577316
292.074738 -13.351013 165.772064
287.442627 -12.029396 165.821350
289.190430 -12.684327 164.708206
291.991516 -11.727476 158.158844
291.266388 -11.731439 152.174942
291.099213 -13.429316 157.509323
290.507080 -13.313971 165.115723
286.791840 -10.770633 94.549347
286.922852 -10.784146 97.150291
281.809387 -10.759825 95.829033
281.917145 -10.786613 95.066765
281.764557 -10.753325 95.926231
281.876923 -10.270799 95.779610
286.562439 -10.951801 96.909599
286.478821 -11.001186 96.476135
286.841614 -10.575872 98.149818
281.772217 -10.467608 97.202156
282.809814 -9.842205 97.803276
288.516602 -10.253713 95.606918
280.650421 -10.731320 85.130936
280.674652 -10.740675 85.080498
282.635498 -9.447548 85.428284
280.804504 -9.767542 87.015984
281.127533 -10.159066 85.648827
281.598267 -11.349498 103.754662
272.928772 -11.189983 106.647285
280.640625 -11.599469 102.889687
294.442963 -13.188437 99.085114
296.694305 -12.689337 102.490845
285.834259 -9.986291 103.403328
285.782288 -10.021609 103.039558
280.467377 -11.128340 103.049217
282.141357 -12.001776 103.334373
280.432007 -11.820537 102.991150
282.214813 -11.003455 102.796333
282.168304 -10.343239 104.239937
282.675140 -12.204820 102.872849
283.577332 -9.880718 104.178162
283.568420 -9.864761 104.318466
285.100708 -10.009398 103.080025
282.865295 -12.323812 103.469162
274.929443 -11.694243 104.577217
283.384979 -12.368023 105.863808
282.422668 -10.093132 105.882286
274.951508 -10.559774 105.679375
274.933716 -11.722980 105.915680
274.882843 -11.723291 106.072075
275.526825 -10.246614 106.875214
282.677429 -10.464865 101.616196
282.490631 -10.532393 104.681221
275.107269 -10.472066 106.882629
275.275635 -11.748188 106.806549
282.717438 -10.137644 109.678505
291.712189 -12.480394 112.943764
290.128571 -13.063939 121.916039
291.772125 -15.243095 147.207367
295.020416 -11.376266 156.771210
294.735443 -11.345617 155.241531
284.796753 -10.842036 148.009705
285.531525 -10.714515 184.058914
287.254333 -10.598811 94.736908
287.545990 -10.647295 94.360275
286.760010 -10.654324 94.634789
287.055939 -10.739245 94.436119
287.885132 -10.966943 94.519943
287.955200 -10.468267 94.336334
281.129669 -10.485801 97.221428
281.999390 -10.297629 100.273399
276.255524 -10.514139 100.566154
274.175934 -11.092752 106.308830
277.921204 -11.276393 97.392868
276.394745 -11.250032 101.083511
294.790436 -13.087008 101.464539
281.081451 -11.977877 102.799828
281.610260 -11.303946 103.879784
276.046051 -11.215747 101.396965
292.995300 -12.770125 101.787849
281.964325 -10.503264 100.799126
281.953125 -10.458051 101.098396
276.229004 -11.090384 101.412048
282.534393 -9.910438 101.506729
292.868439 -12.830114 101.711037
274.846863 -11.122865 102.470398
282.034790 -10.927795 103.630272
279.305359 -10.861978 102.727463
281.122559 -11.976095 102.655472
287.029297 -10.213592 103.313995
281.913971 -10.877392 103.000671
282.014832 -10.947806 102.934296
282.026367 -10.955273 102.929588
282.033905 -10.946601 102.876122
287.157440 -10.168091 104.043816
280.712463 -11.590772 102.630745
281.121826 -11.418398 114.585106
280.465698 -11.112229 103.124283
286.135895 -9.922962 104.924454
282.406250 -11.420918 103.879082
282.397308 -11.457669 103.909737
282.244965 -12.201877 103.184158
283.616058 -9.943690 103.455444
278.659882 -11.985641 104.396881
282.234711 -10.443256 103.394730
281.745941 -9.719673 110.695923
275.446198 -10.541072 104.328239
274.955261 -10.549535 105.684082
277.464752 -10.769728 100.017242
282.341400 -10.057043 106.641670
286.792847 -10.063396 106.192368
282.335114 -10.430260 106.110909
282.492188 -10.537069 105.260635
274.980377 -10.611709 106.972923
282.327148 -9.991569 107.225563
282.258820 -10.379215 103.300568
282.152527 -11.984302 103.232246
282.217224 -10.952685 103.237701
282.240173 -10.961565 103.114342
282.866241 -11.897870 103.599892
278.210602 -11.523952 104.991325
283.212494 -12.123284 104.056229
282.196411 -10.266204 104.632607
278.354645 -11.533634 104.789711
282.190338 -10.790832 105.122528
282.286346 -10.749832 105.396774
282.232788 -10.724413 105.659081
282.283600 -10.732962 105.236511
287.442810 -10.035980 105.610596
287.395935 -10.071369 105.412476
282.338135 -10.417936 106.188034
282.484283 -11.455087 103.605843
282.483612 -10.055619 106.655670
282.470215 -10.486760 106.995483
284.811737 -9.916900 108.665436
284.849854 -9.987924 108.271797
274.993256 -11.770198 108.894127
286.845520 -10.783784 96.785446
286.823547 -10.800314 96.717842
281.780762 -10.481120 96.516815
286.571350 -10.967716 96.908852
281.940735 -9.882515 97.253891
281.968597 -9.907564 97.175034
283.190887 -9.718068 97.532234
284.446503 -9.875526 97.237984
285.861786 -9.952589 97.753906
286.312103 -9.911938 99.145988
281.968414 -10.305289 98.932846
281.916595 -10.696079 99.311295
286.312775 -9.901255 99.466858
281.641418 -11.036794 102.704002
280.664612 -11.573247 102.843597
282.141663 -11.984539 103.224457
282.032715 -10.947392 102.866684
282.071960 -10.955040 102.734047
290.434937 -12.363029 101.986671
280.919830 -11.540801 102.791931
279.251709 -11.032960 103.735001
284.534607 -9.895315 103.565826
282.634369 -11.829578 103.403481
282.643188 -11.839931 103.423546
281.886322 -11.315646 103.835365
281.915375 -11.307316 103.767975
